   9.2057160e-01   1.1210875e-01   1.7972295e-01  -2.5605677e-01  -2.8870319e-01
  -3.7967077e-01  -8.1673058e-01   1.7972295e-01  -2.1231131e-01   3.4554125e-01
  -8.1308490e-01   1.3370966e-01   4.5203046e-01  -2.8522041e-01  -2.7650618e-01
  -7.2640207e-01  -6.8712509e-01  -5.4643040e-01  -2.7063859e-01   1.8698014e-01
   6.6052313e-01  -6.8712509e-01   2.7049212e-01  -1.5398402e-01   3.0895022e-01
   2.2710900e-01  -3.8471229e-01  -1.8153834e-03   1.2307056e-01  -2.6430917e-01
   2.1341311e+00   1.4081636e+00   2.6304905e+00  -3.2896587e-01  -4.9605233e-01
  -6.3971925e-01  -3.1990955e-01  -3.6489206e-01  -2.9980223e-01  -2.1552114e-01
   8.3388877e-01  -1.9615791e+00  -1.0910454e+00   7.8076899e+00   2.1263045e+00
  -1.5065475e+00   2.6331515e-01   8.8953786e-02  -3.1438405e-01  -5.3264335e-01
  -4.6635360e-01  -6.0698570e-02  -7.2796874e-01  -2.2689313e-01  -4.1067327e-01
   9.2057160e-01   5.4412704e-01   4.5203046e-01  -2.9980223e-01  -2.7650618e-01
  -5.5303642e-01  -5.5751961e-01  -8.1873791e-01  -3.1438405e-01  -4.4726430e-01
  -3.8469838e+00   1.7969801e+00   7.3504873e+00  -2.2689313e-01  -4.9605233e-01
   2.2710900e-01  -7.3032692e-01  -6.3719957e-01  -2.4147495e-01  -2.6430917e-01
   5.7384030e-01   4.3612247e-01  -9.2584553e-02  -1.3940220e-01  -3.2529421e-01
   1.5273514e+00  -4.7111595e-01  -9.2584553e-02  -1.3940220e-01   2.7235920e-01
   2.5675453e+00   1.4081636e+00   1.7227988e+00  -2.5605677e-01  -5.3264335e-01
  -1.8532788e+00   6.5213161e-01   7.2433797e-01  -4.0187497e-01  -4.8385532e-01
   4.8715748e-01  -3.8471229e-01  -1.8335372e-01  -3.2896587e-01  -2.3991515e-01
   1.4042618e-01  -2.9830863e-01  -2.7412289e-01  -2.5605677e-01  -3.2566012e-02
   4.8715748e-01  -6.0072143e-01  -5.4643040e-01  -2.2689313e-01  -2.6430917e-01
  -3.7967077e-01  -9.0313424e-01  -8.1873791e-01  -2.8522041e-01  -3.9847626e-01
   7.4720595e-01   1.5531058e-01  -9.2584553e-02  -2.1231131e-01  -1.4233909e-01
   8.3388877e-01  -1.3135516e+00  -7.2796874e-01   2.9373619e+00   1.8698014e-01
  -4.6635360e-01  -8.1673058e-01  -9.2584553e-02  -3.4354769e-01  -4.1067327e-01
  -6.3971925e-01  -8.2299485e-02  -4.5566123e-01  -2.5605677e-01  -3.1309720e-01
   1.1806201e+00  -3.8471229e-01   3.6126129e-01  -2.7063859e-01   1.1379809e-01
  -3.2939473e-02  -4.9271686e-01  -5.4643040e-01  -9.5656742e-02  -2.7650618e-01
   5.7384030e-01   3.4971881e-01  -9.2584553e-02  -2.1231131e-01   1.5038911e-01
   4.8715748e-01  -7.7352875e-01  -6.3719957e-01   2.6888877e-01   1.2481199e+00
   1.5273514e+00   6.5213161e-01   4.5203046e-01  -2.1231131e-01  -4.3506729e-01
   2.1341311e+00  -1.7023681e+00  -1.2725838e+00   1.3625253e+00  -2.3991515e-01
  -1.7665960e+00   3.0066313e+00   3.1751055e+00  -3.4354769e-01  -4.9605233e-01
   1.4406685e+00  -1.0390040e-01   3.6126129e-01  -2.7063859e-01  -2.0369004e-02
   1.0072544e+00   4.7306003e-02   4.5203046e-01  -2.9980223e-01  -1.4233909e-01
  -5.5303642e-01  -2.9830863e-01  -9.2584553e-02  -1.3940220e-01  -3.7408225e-01
   3.1379183e-01  -4.4951503e-01   8.8953786e-02  -2.5605677e-01  -1.4233909e-01
   7.4720595e-01   1.3370966e-01   1.7972295e-01  -3.1438405e-01  -8.1354046e-02
   2.1341311e+00  -1.7239690e+00  -1.1818146e+00   2.2665982e+00   4.9190535e-01
   5.3743351e-02  -7.7352875e-01  -8.1873791e-01  -2.9980223e-01  -3.8627925e-01
   2.5675453e+00  -1.2271480e+00  -1.0910454e+00   2.1056149e-01   2.6016219e-01
   5.7384030e-01  -4.4951503e-01  -4.5566123e-01  -2.5605677e-01  -5.6960029e-02
   3.1379183e-01   3.4971881e-01  -3.6489206e-01  -1.3940220e-01  -1.5453610e-01
   2.7409109e+00  -1.5943635e+00  -5.4643040e-01   8.2299795e-01   4.0652629e-01
   2.2710900e-01  -8.2299485e-02   8.8953786e-02  -2.4147495e-01  -4.2287028e-01
   5.3743351e-02  -1.4710223e-01  -2.7412289e-01  -1.9772949e-01  -4.7165831e-01
  -3.2939473e-02  -3.9097655e-02  -4.5566123e-01  -2.5605677e-01  -2.5211216e-01
  -2.6334242e+00   1.9697874e+00   3.2658747e+00  -2.8522041e-01  -4.7165831e-01
  -1.0731334e+00   9.3294350e-01   1.5412605e+00  -1.9772949e-01  -4.7165831e-01
  -1.1962230e-01  -6.0072143e-01  -5.4643040e-01  -1.8314766e-01  -2.3991515e-01
  -2.9298795e-01  -1.0390040e-01  -3.6489206e-01  -2.9980223e-01  -4.4726430e-01
   8.3388877e-01  -1.0327397e+00  -7.2796874e-01   6.0427064e-01   4.4681301e+00
  -3.2939473e-02   1.1210875e-01  -1.8153834e-03  -3.5812951e-01  -5.2044635e-01
   7.4720595e-01  -7.3032692e-01  -5.4643040e-01  -1.6856584e-01   8.9440662e-01
   3.1379183e-01   4.1041738e-03   1.0874146e+00  -1.2482038e-01   2.1137415e-01
   4.0047465e-01   2.2011332e-01   1.7972295e-01  -3.7271133e-01  -3.3749122e-01
   4.8715748e-01   1.1705536e+00   3.6126129e-01  -1.2482038e-01  -2.6430917e-01
   5.3743351e-02  -2.5510680e-01  -1.8153834e-03  -1.8314766e-01   2.8419029e-02
   2.7409109e+00  -9.2473515e-01  -9.2584553e-02   9.2507069e-01   1.2481199e+00
   6.6052313e-01  -4.4951503e-01   8.8953786e-02  -2.7063859e-01  -3.2566012e-02
   9.2057160e-01  -6.6552418e-01  -1.8153834e-03  -2.2689313e-01  -2.7650618e-01
  -7.2640207e-01  -7.7352875e-01  -3.6489206e-01  -2.8522041e-01  -1.5453610e-01
   1.4042618e-01  -4.4951503e-01   8.8953786e-02  -1.5398402e-01  -8.1719956e-03
  -3.2939473e-02  -1.4710223e-01  -9.2584553e-02  -2.5605677e-01   2.8419029e-02
   4.0047465e-01   2.6331515e-01   4.5203046e-01  -1.2482038e-01  -5.4484036e-01
  -6.3971925e-01  -2.9830863e-01  -6.3719957e-01  -2.2689313e-01  -3.3749122e-01
   5.3743351e-02   2.2505993e+00   1.6320297e+00  -3.2896587e-01  -4.8385532e-01
   1.7873998e+00  -8.2299485e-02  -1.8335372e-01  -3.5812951e-01  -1.1794507e-01
   4.0047465e-01  -1.6870314e-01   6.3356880e-01  -1.9772949e-01  -3.2529421e-01
   8.3388877e-01   1.5531058e-01   1.7972295e-01  -2.2689313e-01  -3.7408225e-01
  -3.7967077e-01  -5.5751961e-01  -3.6489206e-01  -1.9772949e-01  -5.2044635e-01
  -3.7967077e-01  -6.2232235e-01  -3.6489206e-01  -2.2747640e-02   1.6222021e-02
   4.0047465e-01  -6.8712509e-01  -3.6489206e-01  -2.7063859e-01  -8.1354046e-02
  -2.9298795e-01  -2.1190497e-01  -1.0910454e+00  -2.7063859e-01  -2.2771815e-01
   5.3743351e-02   3.0651698e-01   3.6126129e-01  -2.8522041e-01  -1.0574806e-01
  -8.9976772e-01   6.7373253e-01   1.0874146e+00  -3.4354769e-01  -5.2044635e-01
  -2.0630512e-01   6.7373253e-01  -3.6489206e-01  -8.1658194e-03  -3.0090020e-01
   7.4720595e-01  -7.3032692e-01  -6.3719957e-01  -2.4147495e-01  -3.0090020e-01
  -3.2939473e-02  -9.8953790e-01  -2.7412289e-01  -2.1231131e-01  -3.2529421e-01
  -3.2939473e-02  -3.1990955e-01   1.7972295e-01  -2.5605677e-01  -6.9157037e-02
   2.2710900e-01  -6.6552418e-01  -1.8335372e-01  -2.1231131e-01  -1.0574806e-01
  -1.1962230e-01  -1.3783544e+00  -1.1818146e+00  -1.6856584e-01  -3.3749122e-01
   9.2057160e-01  -6.0072143e-01  -6.3719957e-01  -1.9772949e-01   1.6222021e-02
  -4.6635360e-01  -7.7352875e-01   8.8953786e-02  -2.4147495e-01  -2.0369004e-02
  -3.6736181e+00   2.8986267e+00   4.9904889e+00  -1.5398402e-01  -5.8143139e-01
   5.7384030e-01  -1.4710223e-01   7.2433797e-01  -2.7063859e-01   4.0250127e-03
  -2.0630512e-01   4.7306003e-02   2.7049212e-01  -2.8522041e-01  -1.7893011e-01
  -1.5932303e+00  -4.0631320e-01  -1.8335372e-01  -1.1023856e-01   5.2813046e-02
  -2.9298795e-01   7.6013618e-01   9.9664548e-01  -2.5605677e-01  -5.0824934e-01
   1.0072544e+00   7.8173710e-01  -3.6489206e-01  -1.8314766e-01  -4.4726430e-01
  -1.2464990e+00   2.6331515e-01   7.2433797e-01  -1.8314766e-01  -5.4484036e-01
   1.4042618e-01  -1.6870314e-01  -1.8335372e-01  -2.4147495e-01  -8.1719956e-03
  -1.0731334e+00  -4.4951503e-01  -5.4643040e-01  -2.4147495e-01  -3.9847626e-01
  -9.8645055e-01   1.1210875e-01  -2.7412289e-01  -8.1074922e-02  -5.9362840e-01
   9.2057160e-01  -6.6552418e-01   1.7972295e-01   1.1000525e+00   4.1997959e+00
   8.3388877e-01   3.2811789e-01   3.6126129e-01  -9.5656742e-02  -3.1309720e-01
   9.2057160e-01  -1.3999553e+00  -9.2584553e-02   6.7717974e-01   2.1141075e+00
  -2.2000101e+00   1.8617828e+00   2.2674138e+00  -2.5605677e-01  -5.4484036e-01
  -2.9298795e-01  -1.0390040e-01   2.7049212e-01  -1.9772949e-01  -5.0824934e-01
   1.7007170e+00   4.3612247e-01   7.2433797e-01  -2.4147495e-01  -8.1354046e-02
   3.1379183e-01   2.6331515e-01  -1.8335372e-01  -2.9980223e-01  -2.2771815e-01
   1.1806201e+00  -9.2473515e-01  -7.2796874e-01   1.5812526e+00   6.3586664e+00
  -2.2000101e+00   2.5098103e+00   7.2433797e-01  -2.5605677e-01  -5.8143139e-01
   1.4042618e-01  -3.1990955e-01  -3.6489206e-01  -2.9980223e-01  -3.6188524e-01
  -2.0630512e-01  -3.1990955e-01  -9.2584553e-02  -1.9772949e-01  -4.1067327e-01
   5.3743351e-02  -3.1990955e-01  -4.5566123e-01  -2.7063859e-01  -2.7650618e-01
  -1.4198647e+00  -2.1190497e-01  -3.6489206e-01  -2.9980223e-01  -1.7893011e-01
   4.8715748e-01   1.5531058e-01  -1.0002762e+00  -1.1023856e-01   5.2813046e-02
   9.2057160e-01  -3.1990955e-01  -7.2796874e-01  -2.1231131e-01  -3.3749122e-01
  -1.1598162e+00  -1.0390040e-01  -3.6489206e-01  -2.7063859e-01  -1.3014208e-01
  -9.8645055e-01  -2.7670772e-01  -2.7412289e-01  -1.8314766e-01   2.2357116e-01
  -8.1308490e-01  -8.2299485e-02   5.4279963e-01  -2.2689313e-01  -5.3264335e-01
  -2.0630512e-01   8.4653984e-01  -3.6489206e-01  -2.7063859e-01  -2.7650618e-01
   1.4042618e-01  -2.9830863e-01  -2.7412289e-01  -2.4147495e-01   4.3092030e-01
   4.0047465e-01  -3.8471229e-01  -2.7412289e-01  -1.8314766e-01  -4.4726430e-01
  -5.5303642e-01  -3.8471229e-01  -4.5566123e-01  -3.4354769e-01  -4.4763021e-02
  -3.2939473e-02  -2.1190497e-01  -1.8335372e-01  -2.7063859e-01  -3.9847626e-01
   6.6052313e-01  -1.4710223e-01  -1.8153834e-03  -1.9772949e-01   3.2114723e-01
   2.2710900e-01  -1.5727626e+00  -1.0910454e+00   5.5620896e+00   1.8091822e+00
   2.3074968e+00  -1.8319736e+00  -1.4541221e+00   4.3372167e+00   5.1629936e-01
  -2.9298795e-01  -6.0698570e-02   4.5203046e-01  -2.7063859e-01  -3.4968823e-01
  -1.1962230e-01   1.1210875e-01   1.7972295e-01  -2.2689313e-01  -2.1552114e-01
  -1.8532788e+00   1.4297645e+00   2.7212597e+00  -2.9980223e-01  -4.9605233e-01
  -1.7665960e+00   9.5454442e-01   1.9951063e+00  -3.4354769e-01  -4.8385532e-01
  -1.7665960e+00   2.5746130e+00   4.7181814e+00  -3.1438405e-01  -5.2044635e-01
  -9.8645055e-01  -1.6870314e-01  -4.5566123e-01  -1.3940220e-01  -5.4484036e-01
   7.4720595e-01  -1.3567534e+00  -3.6489206e-01   1.2750344e+00   5.4438907e+00
  -6.3971925e-01  -9.8953790e-01  -4.5566123e-01  -2.2689313e-01   3.0895022e-01
  -1.3331818e+00   2.2938011e+00  -9.2584553e-02  -2.1231131e-01  -5.6923438e-01
  -5.5303642e-01   5.0092521e-01  -6.3719957e-01  -2.2689313e-01  -1.7893011e-01
  -6.3971925e-01  -7.0872601e-01  -6.3719957e-01  -2.1231131e-01  -3.4968823e-01
  -7.2640207e-01  -4.4951503e-01  -6.3719957e-01  -2.7063859e-01  -3.0090020e-01
   5.7384030e-01   4.7306003e-02   2.7049212e-01  -1.8314766e-01  -4.1067327e-01
  -1.7665960e+00   2.2073975e+00   4.8997198e+00  -2.5605677e-01  -5.3264335e-01
   3.1379183e-01  -1.0327397e+00  -1.0910454e+00   4.2928879e-01   1.8823643e+00
  -2.9298795e-01   3.0651698e-01  -9.2584553e-02  -2.8522041e-01  -3.8627925e-01
   4.0047465e-01   4.1041738e-03   4.5203046e-01  -1.9772949e-01   1.8698014e-01
   1.8740827e+00  -1.5511617e+00  -1.0002762e+00   1.0271434e+00   6.5010054e-02
   3.1379183e-01  -1.9030406e-01   8.8953786e-02  -1.5398402e-01  -3.1309720e-01
